370736.2517 6226620.2216 66.0521 249 251 252
370736.2546 6226619.3684 65.9056 164 162 177
370736.2456 6226618.5090 66.9730 138 142 153
370736.2453 6226617.6443 66.6664 155 160 176
370736.2532 6226616.7780 66.1929 145 150 163
370736.2482 6226615.9340 65.4434 150 155 168
370736.2426 6226615.0657 65.1691 246 246 248
370736.2437 6226614.2081 65.2839 254 254 254
370736.2571 6226613.3481 64.9645 252 252 252
370736.2450 6226612.4855 64.1814 253 253 253
370736.2497 6226611.6385 63.3168 232 229 227
370736.2456 6226610.7727 61.1585 197 188 165
370736.2519 6226609.9103 60.9532 135 132 131
370736.2499 6226609.0611 60.7348 170 154 117
370736.2428 6226608.2037 62.7438 129 122 88
370736.2418 6226607.3404 62.2861 138 146 156
370736.2415 6226606.4880 60.3634 156 183 173
370736.2427 6226605.6323 60.1643 93 110 125
370736.2585 6226604.7704 60.6358 77 91 102
370736.2501 6226603.9045 61.7161 131 152 186
370736.2466 6226603.0495 62.0448 191 225 254
370736.2551 6226602.1840 62.9202 58 78 106
370736.2494 6226601.3362 63.2058 62 81 103
370736.2493 6226600.4808 65.2007 115 132 152
370736.2546 6226599.6174 65.2722 98 115 140
370736.2552 6226598.7554 64.5029 60 76 100
370736.2555 6226597.9014 64.8056 57 75 103
370736.2582 6226597.0479 65.2707 168 177 194
370736.2519 6226596.1763 64.9469 252 250 248
370736.2554 6226595.3181 64.5302 253 251 250
370736.2585 6226594.4624 64.3139 254 252 250
370736.2582 6226593.6007 63.5984 125 142 165
370736.2540 6226592.7417 63.1929 101 119 143
370736.2442 6226591.8831 62.8399 85 104 123
370736.2518 6226591.0379 62.5695 27 30 36
370736.2581 6226590.1673 62.4363 63 89 105
370736.2524 6226589.3102 62.4200 82 108 120
370736.2571 6226588.4519 62.6957 30 39 44
370736.2499 6226587.5979 63.3632 44 56 50
370736.2510 6226586.7318 63.7327 76 91 67
370736.2425 6226585.8798 64.1693 123 136 88
370736.2408 6226585.0274 64.0305 87 104 62
370736.2530 6226584.1569 64.2264 64 86 65
370736.2508 6226583.2976 60.7900 38 45 59
370736.2473 6226582.4385 59.9992 52 64 82
370736.2515 6226581.5899 60.1750 54 68 89
370736.2495 6226580.7337 60.2579 58 71 92
370736.2486 6226579.8744 60.2221 67 80 102
370736.2521 6226579.0140 60.2068 55 71 86
370736.2508 6226578.1585 60.1425 103 117 119
370736.2414 6226577.2930 60.1646 63 75 64
370736.2417 6226576.4274 60.4874 104 87 94
370736.2512 6226575.5761 60.7329 38 38 40
370736.2482 6226574.7145 61.2194 43 36 23
370736.2433 6226573.8537 61.2953 77 88 107
370736.2476 6226572.9936 60.6670 86 101 123
370736.2544 6226572.1470 60.5236 88 104 127
370736.2509 6226571.2757 60.3932 90 110 134
370736.2445 6226570.4235 60.5782 85 105 130
370736.2463 6226569.5642 60.5859 103 121 143
370736.2424 6226568.7154 60.5808 127 137 153
370736.2434 6226567.8432 60.4099 181 170 171
370736.2432 6226566.9837 60.4508 184 174 172
370736.2482 6226566.1253 60.3849 178 169 167
370736.2523 6226565.2680 60.3637 169 161 159
370736.2413 6226564.4204 60.4865 204 187 177
370736.2422 6226563.5606 60.4662 188 169 157
370736.2579 6226562.6943 60.5202 186 166 152
370736.2470 6226561.8376 60.6734 128 146 64
370736.2512 6226560.9860 61.3069 120 131 92
370736.2521 6226560.1162 61.4293 50 63 49
370736.2542 6226559.2661 61.3508 47 58 51
370736.2481 6226558.4018 61.4396 63 71 62
370736.2468 6226557.5440 61.5899 155 146 117
370736.2522 6226556.6865 61.5937 128 119 85
370736.2548 6226555.8367 61.7230 136 126 108
370736.2459 6226554.9770 61.8896 128 129 113
370736.2437 6226554.1025 62.0538 107 116 99
370736.2499 6226553.2595 62.1657 88 102 89
370736.2486 6226552.3957 62.2988 77 90 78
370736.2498 6226551.5338 62.2491 70 79 69
370736.2479 6226550.6791 63.5792 124 134 83
370737.1079 6226644.2676 58.1311 182 166 149
370737.1121 6226643.4017 58.1606 230 217 189
370737.1031 6226642.5452 58.1758 206 194 172
370737.1031 6226641.6922 58.2380 202 194 179
370737.1124 6226640.8184 58.3250 177 161 140
370737.1061 6226639.9647 58.3544 203 193 164
370737.1088 6226639.1008 58.3663 129 115 112
370737.1100 6226638.2537 58.4170 214 206 189
370737.1114 6226637.3939 58.4897 152 129 131
370737.1001 6226636.5387 58.5272 143 100 95
370737.1100 6226635.6712 58.5953 129 115 116
370737.1136 6226634.8073 58.6613 230 228 227
370737.1152 6226633.9615 59.2572 172 147 100
370737.1065 6226633.0967 59.3885 193 175 106
370737.1044 6226632.2386 59.2730 172 161 106
370737.1091 6226631.3886 59.1300 106 113 74
370737.1117 6226630.5240 59.2154 121 115 99
370737.1057 6226629.6687 59.2756 106 100 77
370737.1048 6226628.8134 59.1390 218 202 174
370737.1153 6226627.9474 60.7120 246 238 219
370737.1024 6226627.0803 61.0102 129 112 72
370737.1059 6226626.2372 61.0019 48 55 41
370737.1006 6226625.3748 60.5496 47 52 33
370737.1023 6226624.5155 60.6121 41 31 30
370737.1087 6226623.6591 62.4949 164 165 183
370737.1170 6226622.7953 66.9613 254 254 254
370737.1058 6226621.9424 66.9789 254 254 254
370737.1096 6226621.0728 67.0989 254 254 254
370737.1153 6226620.2153 66.5507 254 253 254
370737.1027 6226619.3557 66.7754 254 254 255
370737.1153 6226618.4986 66.9741 139 144 155
370737.1103 6226617.6510 66.4610 150 154 168
370737.1134 6226616.7852 66.1148 186 187 197
370737.1062 6226615.9349 65.7573 238 238 237
370737.1130 6226615.0759 65.3331 254 254 254
370737.1019 6226614.2039 65.1386 254 254 254
370737.1071 6226613.3577 65.1294 253 253 253
370737.1050 6226612.4907 64.8289 248 249 250
370737.1034 6226611.6293 64.6632 255 255 255
370737.1099 6226610.7763 64.7031 255 255 255
370737.1101 6226609.9180 63.7885 255 255 255
370737.1145 6226609.0588 62.2844 247 246 238
370737.1080 6226608.2011 63.5709 121 115 85
370737.1073 6226607.3341 61.2430 132 140 157
370737.1022 6226606.4879 60.2550 69 78 96
370737.1161 6226605.6274 60.1121 105 121 135
370737.1097 6226604.7595 61.5866 93 108 141
370737.1120 6226603.9135 61.9081 209 233 253
370737.1083 6226603.0572 62.0818 210 235 255
370737.0994 6226602.1923 62.1906 150 199 249
370737.1106 6226601.3314 62.2135 34 51 90
370737.1169 6226600.4786 62.9089 54 70 97
370737.1055 6226599.6238 63.4549 112 144 170
370737.1101 6226598.7556 63.7150 49 64 88
370737.1039 6226597.9012 64.2723 55 71 96
370737.1014 6226597.0337 64.4956 69 82 110
370737.1087 6226596.1785 64.8018 93 101 123
370737.1051 6226595.3291 65.1938 255 255 255
370737.1120 6226594.4690 65.0757 253 253 253
370737.1041 6226593.6002 64.1031 163 168 186
370737.1053 6226592.7395 63.7023 111 132 156
370737.1162 6226591.8961 63.2969 83 101 122
370737.1051 6226591.0209 62.9695 67 83 109
370737.1107 6226590.1730 62.6455 39 56 77
370737.1076 6226589.3095 62.5608 75 100 116
370737.1121 6226588.4604 63.3945 61 83 91
370737.1055 6226587.5964 63.7777 154 164 108
370737.1167 6226586.7317 63.8017 99 108 78
370737.1079 6226585.8767 64.4112 82 91 66
370737.1104 6226585.0266 64.2738 52 68 34
370737.1084 6226584.1619 64.1337 129 146 83
370737.1154 6226583.3074 61.3736 107 120 93
370737.1168 6226582.4490 60.6536 43 53 70
370737.1162 6226581.5816 60.0697 62 74 93
370737.1071 6226580.7316 60.3630 88 89 97
370737.1101 6226579.8701 60.2859 61 74 91
370737.1142 6226579.0159 60.1391 51 63 79
370737.0993 6226578.1502 60.3166 94 104 82
370737.1153 6226577.2888 62.2440 71 89 61
370737.1075 6226576.4274 61.6907 96 110 58
370737.1163 6226575.5764 60.9213 113 120 66
370737.1048 6226574.7102 61.3576 138 149 151
370737.1042 6226573.8643 60.9940 83 97 118
370737.1040 6226572.9947 60.5785 105 112 128
370737.1093 6226572.1418 60.3681 92 111 133
370737.1101 6226571.2849 60.3942 90 110 134
370737.1069 6226570.4171 60.4516 94 114 135
370737.1034 6226569.5617 60.5924 113 123 144
370737.1159 6226568.7022 60.3496 252 251 252
370737.1041 6226567.8491 60.3955 179 170 168
370737.1011 6226566.9948 60.3607 183 173 170
370737.1091 6226566.1343 60.3401 170 163 160
370737.1155 6226565.2814 60.3521 200 188 177
370737.1123 6226564.4168 60.5078 190 170 159
370737.1170 6226563.5483 60.4854 189 170 155
370737.1149 6226562.6912 60.6549 106 126 54
370737.1028 6226561.8439 61.3563 147 131 101
370737.1088 6226560.9738 62.3897 57 61 57
370737.1041 6226560.1252 62.0852 52 63 55
370737.1080 6226559.2656 61.5752 48 63 52
370737.1049 6226558.4032 61.5340 107 109 87
370737.1137 6226557.5369 61.5160 192 175 134
370737.1011 6226556.6939 61.6786 107 115 83
370737.1062 6226555.8292 61.7963 201 200 139
370737.1081 6226554.9647 61.9463 151 160 123
370737.1169 6226554.1087 62.0357 97 106 95
370737.1015 6226553.2529 62.1886 118 125 119
370737.1146 6226552.3943 62.2418 100 108 101
370737.1050 6226551.5350 62.3526 105 112 104
370737.9664 6226643.4040 58.7096 215 196 176
370737.9664 6226642.5503 58.2447 248 237 223
370737.9664 6226641.6873 58.3711 172 159 145
370737.9599 6226640.8300 58.3686 230 227 210
370737.9735 6226639.9712 58.3856 181 154 137
370737.9699 6226639.1048 58.4492 137 114 100
370737.9753 6226638.2556 58.5054 127 101 88
370737.9691 6226637.3933 58.5745 126 88 86
370737.9597 6226636.5265 58.5780 215 200 185
370737.9696 6226635.6768 58.7554 247 241 224
370737.9623 6226634.8220 59.0615 217 188 126
370737.9706 6226633.9504 59.2633 151 115 75
370737.9735 6226633.0935 59.5033 163 149 99
370737.9700 6226632.2492 59.2301 157 153 88
370737.9630 6226631.3744 59.1173 124 111 82
370737.9617 6226630.5258 59.1540 187 169 145
370737.9624 6226629.6618 59.1395 221 198 163
370737.9583 6226628.8067 60.0269 234 224 203
370737.9593 6226627.9522 60.9767 88 88 67
370737.9690 6226627.0927 61.0644 44 48 37
370737.9604 6226626.2369 60.5243 46 56 33
370737.9735 6226625.3633 60.5674 42 33 39
370737.9695 6226624.5088 60.4614 43 49 35
370737.9755 6226623.6489 62.9757 188 206 224
370737.9666 6226622.8033 66.6113 73 92 117
370737.9629 6226621.9309 66.9732 86 101 125
370737.9654 6226621.0842 67.1202 131 139 172
370737.9691 6226620.2257 66.7833 252 252 254
370737.9620 6226619.3588 66.8875 254 254 254
370737.9752 6226618.4996 66.7787 242 242 245
370737.9613 6226617.6510 67.0064 253 253 253
370737.9649 6226616.7894 66.1285 254 254 254
370737.9709 6226615.9362 66.3598 253 252 252
370737.9689 6226615.0743 66.0606 254 254 254
370737.9619 6226614.2099 65.9530 254 254 254
370737.9580 6226613.3460 65.7224 254 254 254
370737.9640 6226612.4974 65.4691 254 254 254
370737.9677 6226611.6378 65.3726 253 253 253
370737.9687 6226610.7730 65.2375 254 254 254
370737.9629 6226609.9122 65.0615 254 254 254
370737.9690 6226609.0588 65.2443 254 254 254
370737.9595 6226608.1948 63.5606 113 104 84
370737.9739 6226607.3501 62.2930 191 163 129
370737.9693 6226606.4791 61.0480 107 109 101
370737.9713 6226605.6224 60.0787 109 123 135
370737.9608 6226604.7678 61.4447 94 110 126
370737.9714 6226603.9103 62.2352 233 240 251
370737.9583 6226603.0517 62.1371 180 219 254
370737.9652 6226602.1971 61.8359 168 210 253
370737.9750 6226601.3330 61.8678 41 66 110
370737.9655 6226600.4756 62.5721 44 51 67
370737.9698 6226599.6133 62.8025 58 76 103
370737.9662 6226598.7592 63.1414 53 69 96
370737.9601 6226597.8988 63.4712 60 77 105
370737.9666 6226597.0320 63.7799 61 80 121
370737.9665 6226596.1849 64.2149 97 121 152
370737.9741 6226595.3205 64.8873 94 106 142
370737.9579 6226594.4630 65.2930 217 219 230
370737.9702 6226593.6090 65.0296 251 251 249
370737.9698 6226592.7539 64.5174 126 148 170
370737.9628 6226591.8911 63.8913 107 125 149
370737.9668 6226591.0207 63.5058 109 125 143
370737.9640 6226590.1665 63.0584 99 117 138
370737.9733 6226589.3042 62.7366 98 110 130
370737.9708 6226588.4568 62.5047 62 83 95
370737.9710 6226587.6005 63.7807 45 58 61
370737.9600 6226586.7402 63.7631 50 61 47
370737.9702 6226585.8731 64.1433 32 39 36
370737.9723 6226585.0188 63.9768 125 135 103
370737.9615 6226584.1628 63.8534 75 89 47
370737.9718 6226583.3109 63.3802 79 90 53
370737.9712 6226582.4367 60.7071 115 121 84
370737.9685 6226581.5900 60.3977 60 69 84
370737.9750 6226580.7309 60.2257 160 145 134
370737.9681 6226579.8725 60.2832 62 69 86
370737.9599 6226579.0053 60.4790 83 95 91
370737.9726 6226578.1443 60.1845 75 87 61
370737.9737 6226577.2941 63.9364 164 179 108
370737.9678 6226576.4291 62.8356 158 168 104
370737.9708 6226575.5746 61.3302 218 203 141
370737.9646 6226574.7154 61.2953 77 84 102
370737.9726 6226573.8638 60.5963 175 162 158
370737.9724 6226572.9979 60.3035 116 122 131
370737.9701 6226572.1474 60.4949 100 116 136
370737.9630 6226571.2881 60.4542 98 114 134
370737.9588 6226570.4157 60.5141 105 121 141
370737.9703 6226569.5659 60.3804 139 139 148
370737.9689 6226568.6990 60.3095 179 170 166
370737.9670 6226567.8558 60.3360 187 177 173
370737.9618 6226566.9839 60.3472 182 172 168
370737.9666 6226566.1240 60.3297 181 175 172
370737.9640 6226565.2714 60.4050 190 171 161
370737.9600 6226564.4110 60.4983 191 171 160
370737.9742 6226563.5553 60.5148 185 166 148
370737.9745 6226562.6980 61.2370 164 173 110
370737.9610 6226561.8443 62.0207 76 80 66
370737.9593 6226560.9726 61.7479 46 52 48
370737.9684 6226560.1231 61.4674 68 77 75
370737.9749 6226559.2628 61.4892 97 101 90
370737.9711 6226558.3969 61.4781 106 108 83
370737.9591 6226557.5542 61.5705 228 204 151
370737.9713 6226556.6788 61.7252 127 135 94
370737.9600 6226555.8350 61.8345 189 200 120
370737.9594 6226554.9764 61.9530 174 176 132
370737.9724 6226554.1110 62.1195 92 105 85
370737.9740 6226553.2487 62.3043 123 128 111
370737.9644 6226552.4009 62.2041 98 108 104
370738.8264 6226641.6921 58.3869 198 191 181
370738.8298 6226640.8215 58.4085 208 191 171
370738.8322 6226639.9713 58.4729 118 85 82
370738.8313 6226639.1099 58.5458 135 98 94
370738.8330 6226638.2436 58.5570 184 166 160
370738.8269 6226637.3928 58.6392 179 156 123
370738.8284 6226636.5325 58.6854 253 253 252
370738.8235 6226635.6683 59.2204 144 128 83
370738.8206 6226634.8234 59.1822 79 76 55
370738.8270 6226633.9610 59.2414 131 129 67
370738.8196 6226633.0964 59.0686 107 96 67
370738.8169 6226632.2327 59.1985 121 104 69
370738.8312 6226631.3758 59.1530 59 51 38
370738.8300 6226630.5209 59.1815 220 191 152
370738.8250 6226629.6613 59.9570 214 193 166
370738.8169 6226628.7991 60.9502 152 138 86
370738.8278 6226627.9433 61.1426 64 70 46
370738.8283 6226627.0904 61.2284 96 101 106
370738.8168 6226626.2379 60.4302 87 91 97
370738.8183 6226625.3709 59.9458 105 90 96
370738.8242 6226624.5168 59.9617 136 129 103
370738.8247 6226623.6526 66.1057 69 85 106
370738.8198 6226622.7937 66.1877 69 87 113
370738.8227 6226621.9382 66.2707 72 90 115
370738.8247 6226621.0862 66.4052 75 94 120
370738.8210 6226620.2202 66.3309 76 95 121
370738.8250 6226619.3627 66.9061 77 95 122
370738.8273 6226618.4995 66.9716 91 108 136
370738.8275 6226617.6534 66.9003 183 185 208
370738.8334 6226616.7785 66.9139 254 254 254
370738.8218 6226615.9351 67.1758 254 254 254
370738.8304 6226615.0749 67.2778 253 253 253
370738.8196 6226614.2028 67.0775 254 254 254
370738.8233 6226613.3560 67.1516 254 254 254
370738.8254 6226612.5006 66.7457 254 254 254
370738.8301 6226611.6330 66.0942 253 253 253
370738.8313 6226610.7732 66.0408 254 254 254
370738.8231 6226609.9161 65.8958 255 255 255
370738.8258 6226609.0602 63.3583 193 182 168
370738.8314 6226608.2050 63.0212 135 122 100
370738.8321 6226607.3390 62.6091 181 163 114
370738.8272 6226606.4909 62.4675 125 136 67
370738.8308 6226605.6229 60.0988 76 73 74
370738.8311 6226604.7746 60.0102 93 109 123
370738.8282 6226603.9081 59.9993 99 114 129
370738.8243 6226603.0573 61.6040 157 197 233
370738.8177 6226602.1861 62.0511 160 206 246
370738.8225 6226601.3232 62.4659 44 54 71
370738.8300 6226600.4799 62.3662 48 57 69
370738.8294 6226599.6130 62.3792 31 38 46
370738.8169 6226598.7640 63.0074 57 69 93
370738.8244 6226597.8929 63.4164 62 71 99
370738.8279 6226597.0363 63.9846 87 99 125
370738.8210 6226596.1852 64.8709 112 113 136
370738.8180 6226595.3133 65.0015 119 133 166
370738.8172 6226594.4696 64.5660 73 99 150
370738.8178 6226593.6066 64.9192 108 113 149
370738.8333 6226592.7548 65.1279 250 250 250
370738.8213 6226591.8805 64.5337 149 156 172
370738.8175 6226591.0282 64.1963 164 172 186
370738.8317 6226590.1622 63.6779 149 157 172
370738.8229 6226589.3034 63.2761 144 152 167
370738.8241 6226588.4529 63.2250 110 121 136
370738.8234 6226587.5972 63.7692 70 81 85
370738.8188 6226586.7401 63.7576 86 101 54
370738.8167 6226585.8728 64.4608 63 72 36
370738.8328 6226585.0281 64.2609 119 140 58
370738.8200 6226584.1673 64.5924 203 222 107
370738.8332 6226583.3051 63.5107 188 191 114
370738.8240 6226582.4443 62.0441 190 187 100
370738.8186 6226581.5900 60.8479 78 76 82
370738.8224 6226580.7308 60.1254 167 149 131
370738.8237 6226579.8723 60.5553 59 66 77
370738.8233 6226579.0075 60.4088 69 80 80
370738.8204 6226578.1470 65.9911 98 110 58
370738.8191 6226577.2872 64.8296 145 160 91
370738.8286 6226576.4366 63.0960 175 180 78
370738.8233 6226575.5674 61.0958 89 100 94
370738.8341 6226574.7197 60.6963 87 96 113
370738.8225 6226573.8499 60.3359 176 161 153
370738.8279 6226573.0019 60.3198 124 131 143
370738.8313 6226572.1436 60.4355 132 135 146
370738.8217 6226571.2821 60.4181 120 129 146
370738.8262 6226570.4216 60.3830 106 120 140
370738.8316 6226569.5665 60.3141 175 168 170
370738.8337 6226568.7020 60.3054 185 175 170
370738.8194 6226567.8396 60.2826 182 173 169
370738.8188 6226566.9843 60.3382 178 167 164
370738.8328 6226566.1281 60.3082 205 189 178
370738.8211 6226565.2713 60.4297 191 171 160
370738.8172 6226564.4066 60.4479 193 172 158
370738.8254 6226563.5515 60.5411 140 162 88
370738.8168 6226562.6949 61.6994 122 131 94
370738.8250 6226561.8416 62.1184 69 83 72
370738.8280 6226560.9789 61.4450 43 52 49
370738.8212 6226560.1153 61.3609 75 87 81
370738.8292 6226559.2713 61.5227 82 95 81
370738.8216 6226558.4070 61.5732 159 150 114
370738.8181 6226557.5542 61.6397 183 175 116
370738.8268 6226556.6816 61.7759 187 182 120
370738.8337 6226555.8351 61.8834 173 187 111
370738.8281 6226554.9759 62.0396 140 133 84
370738.8242 6226554.1084 62.2887 95 109 89
370738.8292 6226553.2582 62.4249 108 116 102
370739.6892 6226640.8214 58.5365 140 98 97
370739.6809 6226639.9698 58.5676 97 72 70
370739.6890 6226639.1031 58.5911 239 226 191
370739.6795 6226638.2442 58.7656 182 149 117
370739.6887 6226637.3993 58.7366 222 186 143
370739.6797 6226636.5399 59.1583 224 211 133
370739.6844 6226635.6767 59.1564 195 197 112
370739.6834 6226634.8199 59.3027 152 140 78
370739.6870 6226633.9547 59.3963 110 87 40
370739.6900 6226633.0963 59.1924 109 102 64
370739.6847 6226632.2472 59.4026 112 90 71
370739.6759 6226631.3859 59.1923 134 138 83
370739.6832 6226630.5251 59.4319 136 116 97
370739.6927 6226629.6695 60.9089 197 195 192
370739.6769 6226628.8092 61.1259 133 140 82
370739.6859 6226627.9395 60.2130 86 92 100
370739.6850 6226627.0955 60.1978 106 107 108
370739.6821 6226626.2287 60.3124 125 123 122
370739.6788 6226625.3759 60.1491 110 110 110
370739.6854 6226624.5055 59.9302 204 184 162
370739.6801 6226623.6471 65.8104 62 78 100
370739.6773 6226622.8028 65.6946 66 81 103
370739.6800 6226621.9363 65.9109 82 95 117
370739.6852 6226621.0836 66.0303 79 91 113
370739.6750 6226620.2188 66.3785 64 81 105
370739.6860 6226619.3630 66.4901 71 96 129
370739.6821 6226618.5049 66.7660 75 103 139
370739.6787 6226617.6411 66.7129 68 88 117
370739.6872 6226616.7873 66.7767 70 89 115
370739.6808 6226615.9349 66.8283 83 100 127
370739.6913 6226615.0702 66.8417 104 116 146
370739.6754 6226614.2086 67.0609 196 197 211
370739.6925 6226613.3436 67.2377 255 255 255
370739.6895 6226612.4937 67.2983 254 254 254
370739.6899 6226611.6327 67.0740 254 254 254
370739.6876 6226610.7770 67.1113 251 251 251
370739.6879 6226609.9151 64.7135 250 250 251
370739.6785 6226609.0503 62.8124 137 122 96
370739.6814 6226608.2075 62.8299 122 124 91
370739.6866 6226607.3451 62.9643 165 169 71
370739.6754 6226606.4911 63.1051 187 204 107
370739.6895 6226605.6324 62.8677 140 150 68
370739.6828 6226604.7718 59.9736 103 118 130
370739.6920 6226603.9076 59.9182 88 105 121
370739.6900 6226603.0477 59.9603 93 114 129
370739.6794 6226602.1826 62.2882 87 105 127
370739.6833 6226601.3373 62.2585 118 151 190
370739.6835 6226600.4797 62.3304 110 148 190
370739.6886 6226599.6082 62.7417 57 70 94
370739.6905 6226598.7510 63.3302 94 109 136
370739.6845 6226597.8960 63.7755 95 107 127
370739.6859 6226597.0348 64.5130 175 159 168
370739.6901 6226596.1834 65.0435 235 233 232
370739.6755 6226595.3213 64.5564 70 84 114
370739.6902 6226594.4593 64.0220 143 179 213
370739.6750 6226593.5978 64.3062 58 80 111
370739.6839 6226592.7416 64.7035 85 99 127
370739.6832 6226591.8800 64.9624 252 252 253
370739.6770 6226591.0211 64.5589 244 241 238
370739.6773 6226590.1689 64.1355 246 242 238
370739.6920 6226589.3081 63.8078 245 242 240
370739.6918 6226588.4505 63.4076 230 220 211
370739.6839 6226587.5992 63.4300 79 80 82
370739.6921 6226586.7451 64.3393 169 192 89
370739.6845 6226585.8696 65.3681 178 200 79
370739.6922 6226585.0201 65.1954 203 224 98
370739.6913 6226584.1526 64.4303 77 105 34
370739.6857 6226583.3083 63.3637 103 116 53
370739.6790 6226582.4350 63.1324 203 204 130
370739.6897 6226581.5801 61.5187 210 207 135
370739.6853 6226580.7337 60.7633 170 148 133
370739.6815 6226579.8692 60.4170 61 67 78
370739.6752 6226579.0022 60.2795 66 74 82
370739.6775 6226578.1432 60.5917 48 57 59
370739.6910 6226577.2950 65.6958 105 119 48
370739.6799 6226576.4373 62.5433 127 136 64
370739.6847 6226575.5834 60.6389 84 95 94
370739.6885 6226574.7176 60.3362 171 155 153
370739.6857 6226573.8616 60.2563 130 129 134
370739.6844 6226572.9977 60.2910 172 167 186
370739.6761 6226572.1369 60.4420 134 135 141
370739.6873 6226571.2875 60.3636 128 135 148
370739.6886 6226570.4309 60.3037 130 133 145
370739.6796 6226569.5577 60.2884 180 169 164
370739.6756 6226568.7020 60.3407 185 176 170
370739.6762 6226567.8502 60.2793 176 167 163
370739.6797 6226566.9979 60.2852 192 177 172
370739.6829 6226566.1335 60.3892 193 174 163
370739.6863 6226565.2781 60.4049 193 173 161
370739.6753 6226564.4198 60.4674 208 206 157
370739.6838 6226563.5476 60.5690 128 150 62
370739.6909 6226562.7024 61.5672 44 61 51
370739.6861 6226561.8369 61.6154 45 59 53
370739.6755 6226560.9799 61.2914 82 93 86
370739.6750 6226560.1296 61.3989 90 102 94
370739.6872 6226559.2566 61.4919 114 120 101
370739.6872 6226558.3955 61.5673 190 196 130
370739.6898 6226557.5450 61.6844 159 170 101
370739.6887 6226556.6827 61.8167 164 166 105
370739.6919 6226555.8264 61.9214 157 165 98
370739.6800 6226554.9751 62.1093 218 219 135
370739.6794 6226554.1181 62.2933 120 134 86
370740.5498 6226639.9695 58.6072 234 218 197
370740.5342 6226639.1011 58.6897 229 218 208
370740.5438 6226638.2566 58.8243 102 94 77
370740.5421 6226637.3968 58.9815 114 109 57
370740.5357 6226636.5281 59.3474 224 194 127
370740.5412 6226635.6786 59.5601 187 164 100
370740.5362 6226634.8136 59.4464 137 118 78
370740.5375 6226633.9487 59.3783 78 77 46
370740.5500 6226633.1062 59.2055 173 150 95
370740.5426 6226632.2485 59.2616 136 124 68
370740.5362 6226631.3793 59.3324 97 104 37
370740.5442 6226630.5223 60.9478 211 207 192
370740.5360 6226629.6691 60.7072 63 58 61
370740.5365 6226628.8015 60.2182 94 99 110
370740.5487 6226627.9549 60.2209 116 121 129
370740.5449 6226627.0829 60.1976 174 151 130
370740.5365 6226626.2323 60.1584 233 224 194
370740.5358 6226625.3740 60.0594 149 143 140
370740.5469 6226624.5108 62.9815 34 41 76
370740.5457 6226623.6555 65.2285 57 74 92
370740.5472 6226622.7990 65.3183 58 76 97
370740.5433 6226621.9380 65.5376 57 72 95
370740.5420 6226621.0773 65.3506 63 82 106
370740.5359 6226620.2250 65.8372 70 92 120
370740.5512 6226619.3560 67.0020 84 105 136
370740.5455 6226618.5079 66.8349 76 101 135
370740.5418 6226617.6419 65.9444 72 100 132
370740.5339 6226616.7779 66.1122 63 85 112
370740.5376 6226615.9220 66.3643 70 91 118
370740.5392 6226615.0681 66.3684 77 97 125
370740.5476 6226614.2044 66.4363 73 94 122
370740.5408 6226613.3607 66.6613 83 104 132
370740.5364 6226612.4971 66.8563 90 110 136
370740.5475 6226611.6309 66.9850 115 128 160
370740.5510 6226610.7736 67.1340 229 227 236
370740.5431 6226609.9128 66.8152 255 255 255
370740.5491 6226609.0573 62.8226 164 152 108
370740.5494 6226608.2050 62.7602 169 156 136
370740.5368 6226607.3498 63.1061 82 92 43
370740.5336 6226606.4752 63.2088 75 89 44
370740.5505 6226605.6208 63.0308 131 150 84
370740.5378 6226604.7576 59.9008 99 112 127
370740.5398 6226603.9012 59.9643 100 116 131
370740.5401 6226603.0439 60.1536 75 93 109
370740.5452 6226602.1988 62.2424 74 98 137
370740.5471 6226601.3236 62.2489 123 155 200
370740.5413 6226600.4767 62.5884 72 85 117
370740.5504 6226599.6073 63.1957 54 67 93
370740.5494 6226598.7624 63.6633 95 109 130
370740.5482 6226597.8974 64.3606 177 162 167
370740.5356 6226597.0338 65.0412 205 185 185
370740.5414 6226596.1744 64.7464 81 97 125
370740.5345 6226595.3202 64.2161 77 92 124
370740.5393 6226594.4551 63.5463 55 82 122
370740.5337 6226593.6039 63.7375 61 83 114
370740.5491 6226592.7508 64.1671 69 89 121
370740.5431 6226591.8854 64.5490 94 117 154
370740.5465 6226591.0294 64.7909 130 90 101
370740.5477 6226590.1766 64.6948 249 246 243
370740.5513 6226589.3085 64.2959 238 235 231
370740.5481 6226588.4555 64.0179 245 242 239
370740.5499 6226587.5975 63.6893 189 180 178
370740.5499 6226586.7279 65.8353 203 215 100
370740.5456 6226585.8765 65.8708 144 171 43
370740.5360 6226585.0159 65.5481 226 243 124
370740.5467 6226584.1528 65.1044 206 227 94
370740.5495 6226583.3021 63.3968 179 196 97
370740.5449 6226582.4394 63.3982 131 141 65
370740.5340 6226581.5788 62.4281 178 183 110
370740.5424 6226580.7312 61.1417 157 145 113
370740.5456 6226579.8647 60.4110 65 73 83
370740.5438 6226579.0049 60.2585 56 63 73
370740.5361 6226578.1554 60.2382 56 68 77
370740.5425 6226577.3003 60.2870 70 82 83
370740.5383 6226576.4378 60.3346 74 86 99
370740.5425 6226575.5835 60.3109 94 100 117
370740.5387 6226574.7221 60.2131 177 162 154
370740.5360 6226573.8639 60.1879 188 174 176
370740.5487 6226572.9923 60.4249 165 156 158
370740.5490 6226572.1433 60.3896 134 137 148
370740.5395 6226571.2762 60.3503 114 121 133
370740.5337 6226570.4298 60.2960 160 154 154
370740.5495 6226569.5642 60.2664 177 165 160
370740.5434 6226568.6981 60.2386 180 171 163
370740.5371 6226567.8419 60.2591 181 166 167
370740.5414 6226566.9951 60.3178 193 177 161
370740.5449 6226566.1334 60.3958 169 158 135
370740.5491 6226565.2806 60.4485 173 160 132
370740.5480 6226564.4200 60.4919 120 134 70
370740.5398 6226563.5483 60.9177 159 164 116
370740.5335 6226562.6930 61.2780 67 76 67
370740.5439 6226561.8339 61.1284 84 93 85
370740.5335 6226560.9875 61.3484 81 95 85
370740.5431 6226560.1151 61.3492 103 111 109
370740.5393 6226559.2560 61.5765 182 168 145
370740.5417 6226558.3968 61.6062 186 201 125
370740.5347 6226557.5433 61.7465 148 151 91
370740.5483 6226556.6944 61.8607 140 140 80
370740.5354 6226555.8351 62.0122 206 197 121
370740.5462 6226554.9671 62.2071 155 172 94
370741.3964 6226639.1045 59.0134 141 140 90
370741.4045 6226638.2424 59.1472 192 174 111
370741.3973 6226637.3901 59.3144 202 184 109
370741.4039 6226636.5362 59.3918 206 191 117
370741.4036 6226635.6814 59.3958 141 132 81
370741.3985 6226634.8221 59.5338 148 125 85
370741.4096 6226633.9542 59.3183 177 169 111
370741.3974 6226633.1020 59.3993 154 150 94
370741.4083 6226632.2444 59.3513 125 132 67
370741.4064 6226631.3794 60.2273 236 230 210
370741.4011 6226630.5198 60.7884 45 41 49
370741.4078 6226629.6613 60.9694 170 115 112
370741.3932 6226628.8070 60.1956 120 126 133
370741.3980 6226627.9419 60.2066 210 193 169
370741.4070 6226627.0870 60.1893 213 196 172
370741.4051 6226626.2379 60.1654 198 179 161
370741.3978 6226625.3773 60.3062 134 124 124
370741.4087 6226624.5130 60.7783 26 27 33
370741.3941 6226623.6515 64.1852 43 43 50
370741.4027 6226622.7896 64.3247 78 89 106
370741.4064 6226621.9447 64.6700 63 84 111
370741.4009 6226621.0718 65.1360 70 94 122
370741.3962 6226620.2284 66.4498 74 98 126
370741.3972 6226619.3619 66.7722 147 161 178
370741.3987 6226618.5059 66.3052 82 108 140
370741.3925 6226617.6404 65.5590 68 95 131
370741.3944 6226616.7862 65.6096 55 74 102
370741.4062 6226615.9304 65.5740 61 80 108
370741.4079 6226615.0621 65.8729 67 87 114
370741.3976 6226614.2043 66.0702 74 95 123
370741.4088 6226613.3539 66.0790 66 87 115
370741.3998 6226612.5004 66.2301 69 92 121
370741.3932 6226611.6436 66.5207 76 99 130
370741.3960 6226610.7817 67.0224 86 110 142
370741.3937 6226609.9211 66.9265 94 111 141
370741.3933 6226609.0657 63.2354 130 123 89
370741.4020 6226608.1999 63.2403 173 181 100
370741.3976 6226607.3390 63.3226 87 104 58
370741.4012 6226606.4778 63.2319 73 90 48
370741.3963 6226605.6192 61.9892 150 164 148
370741.3921 6226604.7667 59.9411 106 122 135
370741.4007 6226603.9080 59.9545 99 116 131
370741.3983 6226603.0519 60.0059 99 119 137
370741.4000 6226602.1979 61.3139 62 71 83
370741.3934 6226601.3245 62.4324 130 160 191
370741.3955 6226600.4676 62.9802 82 91 116
370741.4078 6226599.6227 63.5111 84 95 120
370741.4034 6226598.7541 64.0741 123 118 124
370741.4040 6226597.8905 64.6864 200 177 172
370741.4083 6226597.0412 65.0877 87 103 144
370741.4089 6226596.1725 64.2569 74 87 120
370741.3969 6226595.3310 63.7329 61 77 110
370741.4003 6226594.4709 63.1582 63 82 122
370741.3982 6226593.6077 63.2517 77 98 128
370741.3982 6226592.7514 63.6118 58 81 113
370741.3963 6226591.8900 63.9579 83 106 135
370741.3975 6226591.0263 64.4086 77 105 148
370741.4065 6226590.1672 64.6553 69 80 106
370741.4043 6226589.3038 64.8445 253 250 245
370741.3986 6226588.4605 64.4743 247 245 242
370741.4022 6226587.5945 64.1092 236 225 209
370741.4070 6226586.7423 66.3180 158 179 91
370741.4046 6226585.8736 66.1290 157 179 63
370741.4016 6226585.0147 65.8130 121 145 62
370741.4012 6226584.1575 65.0609 120 145 60
370741.3999 6226583.3078 63.6383 64 75 41
370741.4029 6226582.4429 63.5131 91 102 50
370741.4045 6226581.5789 63.1294 203 198 120
370741.3971 6226580.7220 61.8343 224 210 159
370741.4014 6226579.8680 60.2924 64 66 76
370741.4056 6226579.0016 60.3197 55 64 78
370741.4086 6226578.1440 60.2696 58 67 77
370741.3986 6226577.3000 60.3218 73 86 101
370741.4092 6226576.4298 60.2690 81 93 113
370741.3989 6226575.5791 60.2273 175 158 149
370741.4057 6226574.7170 60.1322 195 183 175
370741.4044 6226573.8663 60.1525 182 171 169
370741.4011 6226573.0065 60.4119 185 174 168
370741.3961 6226572.1359 60.3461 137 138 147
370741.4009 6226571.2885 60.2710 132 132 141
370741.4076 6226570.4187 60.2626 177 166 162
370741.4016 6226569.5566 60.2211 187 176 169
370741.3948 6226568.7052 60.2003 173 163 155
370741.4088 6226567.8534 60.2713 225 219 193
370741.3979 6226566.9947 60.2168 186 175 148
370741.4079 6226566.1384 60.4198 189 176 146
370741.4087 6226565.2717 60.5248 161 164 103
370741.4081 6226564.4089 60.5822 171 186 106
370741.4089 6226563.5484 61.4349 95 103 75
370741.4079 6226562.7003 61.1496 108 120 89
370741.3923 6226561.8397 61.2974 92 104 83
370741.4030 6226560.9792 61.3291 104 112 102
370741.3990 6226560.1131 61.4104 97 104 95
370741.3953 6226559.2713 61.5686 166 164 103
370741.3999 6226558.4016 61.6402 220 203 148
370741.3940 6226557.5529 61.8065 169 182 109
370741.4010 6226556.6950 61.9394 204 210 123
370741.4013 6226555.8232 62.1211 212 216 138
370742.2606 6226638.2422 59.3463 141 131 84
370742.2598 6226637.3972 59.5766 126 116 71
370742.2598 6226636.5376 59.5251 157 131 83
370742.2601 6226635.6739 59.2964 165 152 96
370742.2607 6226634.8175 59.4789 127 120 81
370742.2516 6226633.9535 59.4233 168 166 100
370742.2543 6226633.0977 59.3630 96 96 73
370742.2506 6226632.2323 59.5949 220 206 168
370742.2519 6226631.3739 60.5630 66 58 55
370742.2664 6226630.5206 60.1800 99 106 112
370742.2639 6226629.6627 60.1636 117 125 136
370742.2526 6226628.8096 60.1742 132 131 134
370742.2562 6226627.9521 60.1738 167 154 136
370742.2588 6226627.0892 60.1785 229 210 184
370742.2660 6226626.2308 60.1660 209 195 175
370742.2572 6226625.3657 60.1504 105 112 120
370742.2624 6226624.5047 61.0640 65 71 77
370742.2625 6226623.6570 61.9497 36 39 47
370742.2590 6226622.8012 62.3294 68 82 99
370742.2519 6226621.9320 65.2003 67 92 124
370742.2643 6226621.0797 66.3300 77 100 130
370742.2621 6226620.2209 66.9498 124 134 151
370742.2533 6226619.3541 66.7305 173 188 202
370742.2521 6226618.5004 66.1048 90 113 146
370742.2580 6226617.6470 65.5305 73 100 137
370742.2511 6226616.7907 64.8843 55 74 103
370742.2596 6226615.9231 65.0482 60 78 104
370742.2636 6226615.0746 65.2639 62 83 110
370742.2654 6226614.2152 65.2581 67 88 115
370742.2618 6226613.3472 65.5441 66 89 116
370742.2584 6226612.5004 65.6461 69 92 119
370742.2554 6226611.6264 65.8468 72 96 126
370742.2606 6226610.7837 65.9279 78 103 133
370742.2682 6226609.9107 63.6350 201 202 203
370742.2630 6226609.0530 62.8273 66 63 67
370742.2510 6226608.1918 63.8361 92 109 56
370742.2604 6226607.3333 63.9320 135 147 71
370742.2666 6226606.4758 63.0999 102 117 50
370742.2621 6226605.6209 62.3264 177 192 93
370742.2605 6226604.7663 60.7525 105 114 122
370742.2527 6226603.9166 59.9756 104 118 132
370742.2572 6226603.0517 59.8803 97 113 126
370742.2601 6226602.1986 61.4853 71 83 97
370742.2522 6226601.3301 62.8205 88 96 116
370742.2576 6226600.4731 63.4816 101 109 131
370742.2643 6226599.6129 63.9018 114 113 132
370742.2570 6226598.7607 64.5151 222 203 198
370742.2600 6226597.9037 65.0937 249 253 254
370742.2624 6226597.0374 64.4893 71 88 120
370742.2553 6226596.1878 63.9177 64 79 108
370742.2668 6226595.3138 63.3234 63 78 110
370742.2511 6226594.4590 62.8664 81 101 134
370742.2507 6226593.5975 62.8216 83 98 136
370742.2633 6226592.7501 63.0960 59 83 117
370742.2563 6226591.8937 63.4609 51 76 111
370742.2594 6226591.0215 63.8590 68 103 152
370742.2581 6226590.1718 64.1526 60 79 113
370742.2617 6226589.3073 64.5377 66 82 111
370742.2627 6226588.4621 64.8275 216 187 187
370742.2584 6226587.5974 64.6512 228 222 213
370742.2656 6226586.7336 64.1428 75 75 78
370742.2679 6226585.8798 63.9903 69 80 63
370742.2627 6226585.0144 65.1159 90 114 56
370742.2546 6226584.1622 64.9147 104 125 47
370742.2592 6226583.2976 63.5554 171 191 87
370742.2667 6226582.4385 63.4583 111 123 81
370742.2534 6226581.5807 63.7723 144 156 88
370742.2557 6226580.7253 62.8138 185 196 103
370742.2545 6226579.8620 60.5286 83 86 75
370742.2574 6226579.0136 60.1798 83 93 88
370742.2548 6226578.1458 60.2358 66 76 93
370742.2519 6226577.2889 60.1825 77 91 111
370742.2573 6226576.4355 60.2970 102 103 113
370742.2542 6226575.5707 60.0996 201 191 183
370742.2610 6226574.7133 60.1762 237 235 236
370742.2539 6226573.8503 60.1815 177 165 158
370742.2515 6226573.0077 60.1885 158 153 149
370742.2596 6226572.1338 60.2777 114 119 138
370742.2519 6226571.2822 60.2887 154 149 150
370742.2508 6226570.4174 60.2605 182 173 165
370742.2604 6226569.5696 60.1814 180 171 163
370742.2537 6226568.7109 60.2670 186 184 163
370742.2549 6226567.8513 60.3214 180 172 138
370742.2644 6226566.9892 60.3184 172 157 129
370742.2514 6226566.1279 60.5691 157 151 107
370742.2643 6226565.2676 60.7451 153 165 99
370742.2549 6226564.4053 60.9211 161 172 110
370742.2663 6226563.5513 61.1010 118 130 93
370742.2680 6226562.7010 61.2870 119 131 97
370742.2655 6226561.8344 61.2200 127 138 108
370742.2579 6226560.9807 61.3846 108 119 102
370742.2538 6226560.1212 61.4753 131 137 116
370742.2613 6226559.2641 61.5352 171 164 116
370742.2665 6226558.4035 61.7187 177 182 113
370742.2650 6226557.5491 61.8573 145 158 95
370742.2608 6226556.6937 62.0471 157 167 101
370743.1117 6226637.3920 59.6035 78 75 56
370743.1131 6226636.5279 59.3989 114 117 68
370743.1093 6226635.6732 59.4327 183 162 100
370743.1199 6226634.8152 59.4181 112 112 72
370743.1119 6226633.9569 59.3400 148 143 101
370743.1183 6226633.1019 59.4260 109 96 88
370743.1171 6226632.2343 60.7702 187 186 171
370743.1156 6226631.3821 60.3751 90 94 97
370743.1172 6226630.5213 60.2973 146 144 145
370743.1210 6226629.6704 60.2885 175 189 196
370743.1201 6226628.8073 60.1639 226 211 188
370743.1242 6226627.9426 60.1551 221 205 182
370743.1172 6226627.0897 60.1396 182 160 145
370743.1270 6226626.2275 60.1010 232 214 191
370743.1172 6226625.3684 60.0912 102 110 118
370743.1237 6226624.5205 60.1502 83 97 108
370743.1212 6226623.6500 60.4361 65 74 87
370743.1186 6226622.7994 60.6247 58 72 88
370743.1156 6226621.9434 64.2429 59 81 115
370743.1269 6226621.0834 66.1830 98 116 140
370743.1219 6226620.2125 66.7221 143 148 159
370743.1139 6226619.3659 66.5920 151 155 168
370743.1269 6226618.5078 65.8839 96 118 149
370743.1157 6226617.6446 65.3466 74 104 141
370743.1202 6226616.7881 64.5100 73 102 141
370743.1172 6226615.9361 62.9831 61 74 92
370743.1203 6226615.0705 64.5731 66 86 110
370743.1176 6226614.2055 64.6594 64 85 112
370743.1248 6226613.3487 64.8814 65 87 116
370743.1251 6226612.5019 65.0133 66 89 117
370743.1223 6226611.6435 65.1889 65 88 117
370743.1127 6226610.7720 65.2508 77 99 130
370743.1170 6226609.9147 60.4220 106 113 108
370743.1269 6226609.0642 61.6852 59 75 65
370743.1252 6226608.2025 62.6914 68 83 82
370743.1115 6226607.3363 62.9394 37 50 35
370743.1154 6226606.4874 62.8802 111 117 50
370743.1207 6226605.6173 63.2023 119 125 56
370743.1120 6226604.7585 62.6499 190 205 90
370743.1168 6226603.9033 59.8711 95 109 122
370743.1158 6226603.0547 59.9272 101 117 130
370743.1105 6226602.1995 61.9896 105 118 131
370743.1150 6226601.3402 62.5350 108 116 133
370743.1221 6226600.4749 63.7186 115 122 135
370743.1162 6226599.6223 64.3320 206 184 175
370743.1257 6226598.7543 65.0170 214 193 198
370743.1119 6226597.9007 64.6576 84 94 126
370743.1253 6226597.0377 64.0374 83 95 128
370743.1212 6226596.1791 63.5173 74 89 121
370743.1144 6226595.3291 62.9545 65 82 120
370743.1227 6226594.4563 62.7475 129 166 216
370743.1196 6226593.6113 62.7257 127 169 218
370743.1267 6226592.7469 62.7495 58 86 145
370743.1169 6226591.8954 62.9051 52 74 111
370743.1212 6226591.0259 63.2837 76 97 129
370743.1122 6226590.1726 63.6450 48 70 102
370743.1245 6226589.3115 63.9649 69 91 118
370743.1158 6226588.4599 64.3612 51 73 103
370743.1242 6226587.6007 64.7474 76 103 148
370743.1264 6226586.7351 64.7278 107 121 148
370743.1139 6226585.8750 64.3194 68 72 86
370743.1145 6226585.0128 64.3040 64 71 83
370743.1249 6226584.1544 63.5435 181 174 171
370743.1266 6226583.3089 63.1753 146 143 135
370743.1190 6226582.4404 63.5265 72 83 72
370743.1170 6226581.5779 63.6651 219 229 119
370743.1141 6226580.7330 64.5127 197 213 113
370743.1231 6226579.8606 60.3948 167 177 166
370743.1191 6226579.0118 60.2163 89 97 101
370743.1215 6226578.1453 60.2181 76 89 109
370743.1141 6226577.2993 60.1913 78 90 111
370743.1177 6226576.4305 60.0867 173 156 151
370743.1211 6226575.5819 60.1017 187 171 167
370743.1208 6226574.7126 60.0672 181 168 163
370743.1222 6226573.8513 60.1283 186 175 168
370743.1109 6226572.9996 60.2959 134 133 139
370743.1117 6226572.1401 60.2377 111 121 135
370743.1155 6226571.2788 60.2883 177 170 162
370743.1147 6226570.4257 60.1812 184 172 166
370743.1239 6226569.5583 60.1588 173 163 154
370743.1150 6226568.7070 60.2859 171 163 135
370743.1206 6226567.8464 60.2932 192 183 153
370743.1262 6226566.9862 60.4033 180 182 129
370743.1097 6226566.1338 60.5877 184 195 128
370743.1206 6226565.2774 60.7720 149 160 92
370743.1153 6226564.4105 60.9563 158 170 117
370743.1109 6226563.5508 61.1406 178 193 130
370743.1230 6226562.6921 61.3135 140 154 99
370743.1157 6226561.8310 61.4625 98 116 73
370743.1252 6226560.9762 61.4050 102 114 94
370743.1163 6226560.1221 61.5682 144 146 115
370743.1105 6226559.2653 61.5972 188 170 112
370743.1103 6226558.4111 61.7533 190 190 118
370743.1125 6226557.5448 61.9080 159 160 100
370743.1260 6226556.6830 62.4198 180 176 118
370743.9784 6226636.5412 59.3854 87 90 61
370743.9838 6226635.6658 59.3871 119 112 90
370743.9801 6226634.8135 59.3631 165 154 130
370743.9789 6226633.9617 59.4050 186 175 141
370743.9822 6226633.0931 61.0008 115 103 89
370743.9746 6226632.2381 60.8393 157 134 129
370743.9806 6226631.3830 60.3956 92 91 99
370743.9778 6226630.5143 60.3924 134 154 162
370743.9778 6226629.6675 60.3202 222 225 207
370743.9800 6226628.8016 60.4135 129 128 126
370743.9722 6226627.9554 60.1471 213 186 162
370743.9811 6226627.0953 60.0935 188 163 140
370743.9763 6226626.2307 60.0636 217 201 173
370743.9836 6226625.3751 60.1017 57 53 64
370743.9688 6226624.5219 60.2007 75 86 98
370743.9732 6226623.6495 60.0889 74 85 100
370743.9799 6226622.7976 60.1549 65 74 88
370743.9831 6226621.9386 60.5049 63 76 92
370743.9783 6226621.0849 60.5973 40 49 54
370743.9814 6226620.2225 63.8086 134 149 170
370743.9767 6226619.3630 66.5363 158 162 174
370743.9698 6226618.4994 61.2364 115 141 172
370743.9796 6226617.6524 65.2267 81 110 149
370743.9795 6226616.7810 64.5594 80 112 149
370743.9758 6226615.9272 61.0460 49 56 66
370743.9746 6226615.0625 60.7127 50 52 57
370743.9763 6226614.2097 60.4710 88 98 102
370743.9768 6226613.3463 60.6369 38 50 51
370743.9803 6226612.4858 60.6773 39 48 55
370743.9700 6226611.6272 64.5807 63 85 113
370743.9754 6226610.7749 62.6771 204 210 217
370743.9699 6226609.9179 60.2315 104 114 120
370743.9686 6226609.0672 60.4643 65 75 85
370743.9734 6226608.2079 60.7909 31 37 38
370743.9837 6226607.3374 62.2676 94 106 94
370743.9777 6226606.4758 63.3502 109 119 58
370743.9720 6226605.6190 63.8772 185 187 98
370743.9689 6226604.7596 62.8703 119 134 34
370743.9824 6226603.9138 59.9710 93 105 117
370743.9789 6226603.0545 59.9665 90 107 123
370743.9792 6226602.1932 59.8246 52 64 80
370743.9814 6226601.3390 59.9276 43 53 71
370743.9813 6226600.4689 64.3220 210 183 175
370743.9744 6226599.6165 65.0250 214 191 186
370743.9749 6226598.7529 64.8383 110 121 148
370743.9755 6226597.8998 64.2142 103 117 146
370743.9719 6226597.0306 63.6426 69 81 117
370743.9831 6226596.1734 63.0363 66 82 115
370743.9749 6226595.3297 62.7518 145 174 203
370743.9678 6226594.4578 62.7294 124 163 211
370743.9715 6226593.6079 62.6877 133 170 214
370743.9750 6226592.7541 62.7243 129 170 215
370743.9713 6226591.8950 62.6943 131 171 219
370743.9786 6226591.0218 62.8381 56 83 122
370743.9741 6226590.1650 63.0940 50 76 119
370743.9740 6226589.3209 63.4796 116 157 199
370743.9763 6226588.4477 63.9195 71 92 127
370743.9759 6226587.5967 64.7293 163 174 194
370743.9728 6226586.7339 64.6540 64 92 131
370743.9811 6226585.8768 64.8271 156 186 215
370743.9779 6226585.0188 64.6058 202 213 221
370743.9747 6226584.1587 64.0234 162 160 165
370743.9747 6226583.3090 63.6987 249 247 244
370743.9819 6226582.4526 63.5064 216 209 179
370743.9770 6226581.5870 63.7918 175 190 120
370743.9712 6226580.7207 64.8684 162 176 100
370743.9811 6226579.8667 61.6708 107 119 116
370743.9691 6226579.0046 60.1326 76 90 99
370743.9842 6226578.1535 60.3213 78 89 109
370743.9710 6226577.2976 60.1860 166 153 148
370743.9704 6226576.4384 60.0500 190 178 168
370743.9828 6226575.5723 60.0578 209 201 203
370743.9714 6226574.7245 60.0994 184 172 163
370743.9741 6226573.8613 60.1311 184 172 165
370743.9808 6226572.9939 60.2191 206 207 210
370743.9848 6226572.1470 60.2476 128 131 138
370743.9855 6226571.2885 60.2378 182 171 164
370743.9687 6226570.4169 60.1284 176 166 156
370743.9719 6226569.5697 60.2048 188 178 152
370743.9779 6226568.6983 60.2985 188 187 144
370743.9775 6226567.8418 60.1906 175 178 127
370743.9741 6226566.9830 60.4161 163 171 110
370743.9759 6226566.1363 60.6233 147 157 94
370743.9758 6226565.2811 60.8076 138 146 96
370743.9744 6226564.4210 60.9920 134 139 99
370743.9790 6226563.5559 61.1763 150 153 105
370743.9689 6226562.6971 61.3599 150 161 124
370743.9834 6226561.8415 61.5280 116 125 89
370743.9855 6226560.9710 61.5904 143 152 119
370743.9711 6226560.1162 61.7545 185 163 124
370743.9803 6226559.2605 61.6466 212 199 128
370743.9782 6226558.4035 61.8056 200 209 136
370743.9767 6226557.5508 62.0068 200 200 123
370744.8280 6226635.6701 60.3647 213 194 168
370744.8425 6226634.8203 59.4133 197 192 132
370744.8305 6226633.9559 60.6683 250 249 242
370744.8418 6226633.0959 61.0708 93 91 83
370744.8422 6226632.2439 60.5843 245 244 243
370744.8267 6226631.3807 60.2358 210 195 183
370744.8392 6226630.5236 60.4897 177 177 162
370744.8347 6226629.6572 60.4580 106 106 102
370744.8291 6226628.8113 60.4050 203 205 196
370744.8357 6226627.9562 60.1645 207 182 154
370744.8269 6226627.0927 60.1088 175 155 131
370744.8435 6226626.2363 60.7803 141 135 127
370744.8306 6226625.3657 62.0372 51 59 72
370744.8342 6226624.5219 62.2859 91 102 105
370744.8270 6226623.6501 60.0700 72 82 93
370744.8371 6226622.8007 60.1022 73 82 93
370744.8385 6226621.9297 60.1715 73 83 95
370744.8441 6226621.0776 60.0787 73 83 97
370744.8285 6226620.2271 60.2989 72 83 99
370744.8270 6226619.3659 60.4613 63 69 79
370744.8408 6226618.5051 60.3444 31 37 52
370744.8328 6226617.6469 60.2607 64 76 90
370744.8339 6226616.7951 60.4436 61 68 78
370744.8436 6226615.9338 60.9254 103 116 124
370744.8321 6226615.0625 60.8524 53 60 70
370744.8435 6226614.2053 60.4485 51 57 69
370744.8334 6226613.3451 60.3374 79 87 95
370744.8285 6226612.4856 60.3369 83 87 93
370744.8267 6226611.6311 60.2732 86 98 111
370744.8315 6226610.7802 60.2085 123 141 156
370744.8348 6226609.9220 60.1876 126 136 144
370744.8383 6226609.0534 60.4454 56 64 81
370744.8336 6226608.1992 60.8165 61 77 103
370744.8410 6226607.3463 61.0051 40 50 39
370744.8375 6226606.4759 62.6918 27 36 31
370744.8302 6226605.6162 62.7785 79 99 87
370744.8351 6226604.7704 62.4906 100 114 58
370744.8374 6226603.9100 59.9186 98 111 123
370744.8352 6226603.0463 59.8025 44 53 70
370744.8268 6226602.1890 59.8702 48 61 79
370744.8271 6226601.3403 59.8207 39 47 60
370744.8359 6226600.4691 59.9987 48 58 68
370744.8284 6226599.6163 65.0774 195 205 222
370744.8266 6226598.7650 64.4180 86 102 136
370744.8339 6226597.9066 63.7701 67 81 112
370744.8381 6226597.0405 63.1882 79 95 128
370744.8396 6226596.1789 62.7270 106 142 185
370744.8377 6226595.3172 62.6883 135 171 216
370744.8357 6226594.4620 62.7194 121 152 183
370744.8380 6226593.5980 62.6791 181 204 219
370744.8437 6226592.7541 62.6915 131 168 216
370744.8366 6226591.8812 62.6679 120 154 198
370744.8355 6226591.0322 62.7221 70 92 124
370744.8301 6226590.1722 63.2144 78 99 127
370744.8439 6226589.3147 63.5669 81 102 128
370744.8425 6226588.4585 64.6525 176 175 181
370744.8335 6226587.6010 64.4840 66 91 124
370744.8350 6226586.7293 64.0685 62 89 134
370744.8347 6226585.8749 64.3974 52 73 105
370744.8297 6226585.0233 64.8040 131 159 203
370744.8429 6226584.1582 64.6928 249 247 247
370744.8435 6226583.3025 64.2638 247 245 243
370744.8426 6226582.4475 63.9427 246 239 232
370744.8291 6226581.5937 64.7392 57 66 58
370744.8269 6226580.7321 65.2907 152 162 112
370744.8375 6226579.8761 63.4945 60 77 71
370744.8269 6226579.0158 60.0542 76 89 104
370744.8329 6226578.1470 60.1247 122 119 123
370744.8334 6226577.2881 60.0182 174 158 151
370744.8352 6226576.4317 60.0193 189 173 175
370744.8328 6226575.5825 60.0439 186 172 166
370744.8266 6226574.7227 60.0528 190 177 169
370744.8409 6226573.8614 60.2125 181 169 164
370744.8406 6226572.9950 60.2254 149 144 148
370744.8302 6226572.1362 60.1821 149 146 146
370744.8282 6226571.2756 60.1871 178 167 158
370744.8392 6226570.4251 60.1254 169 157 147
370744.8386 6226569.5653 60.2037 191 173 150
370744.8368 6226568.7140 60.1393 145 146 103
370744.8333 6226567.8462 60.2191 171 177 132
370744.8307 6226566.9858 60.4182 118 124 80
370744.8423 6226566.1239 60.6324 114 123 74
370744.8335 6226565.2661 60.8433 104 101 66
370744.8321 6226564.4218 61.0276 111 114 78
370744.8377 6226563.5607 61.2119 147 157 103
370744.8412 6226562.6917 61.3963 141 151 103
370744.8287 6226561.8362 61.5289 132 143 92
370744.8437 6226560.9830 61.7048 126 143 88
370744.8439 6226560.1280 61.6761 161 141 99
370744.8338 6226559.2621 61.8486 191 178 117
370744.8329 6226558.4088 61.9346 170 177 110
370745.6950 6226633.9517 60.9364 91 87 86
370745.6870 6226633.0930 61.4467 140 157 161
370745.6943 6226632.2453 61.7590 209 212 214
370745.7005 6226631.3756 60.4071 236 237 231
370745.6861 6226630.5317 60.3564 141 139 119
370745.7009 6226629.6624 60.1664 133 134 122
370745.6884 6226628.8072 60.3290 197 189 144
370745.6926 6226627.9534 60.3395 174 150 120
370745.6913 6226627.0907 61.3451 215 210 198
370745.6929 6226626.2354 62.3438 54 62 77
370745.6992 6226625.3774 62.3259 48 56 74
370745.6908 6226624.5125 62.2294 31 36 46
370745.6978 6226623.6592 60.2387 62 68 75
